ply
format ascii 1.0
comment Created by Open3D
element vertex 1727
property double x
property double y
property double z
property uchar red
property uchar green
property uchar blue
end_header
-4.21 17.04 -10.46 249 3 2
-4.27 17.03 -10.46 246 4 2
-4.29 17.03 -10.45 250 2 2
-4.3 17.02 -10.45 250 2 1
-4.32 17.02 -10.45 249 3 2
-4.33 17.01 -10.45 246 4 3
-4.35 17.01 -10.45 246 4 2
-4.37 17.01 -10.45 248 3 2
-4.38 17 -10.45 247 3 2
-4.4 17 -10.45 245 5 1
-4.41 17 -10.45 248 3 2
-4.43 16.99 -10.44 251 2 2
-4.44 16.99 -10.44 249 2 1
-4.46 16.99 -10.44 249 3 1
-4.47 16.98 -10.44 249 2 1
-4.49 16.98 -10.44 251 2 1
-4.5 16.98 -10.44 250 2 1
-4.52 16.97 -10.44 250 2 1
-4.53 16.97 -10.44 252 2 0
-4.55 16.96 -10.44 250 3 1
-4.56 16.96 -10.44 250 2 1
-4.58 16.96 -10.44 251 2 0
-4.59 16.95 -10.44 251 2 0
-4.61 16.95 -10.44 252 1 1
-4.62 16.95 -10.44 251 1 1
-4.64 16.94 -10.44 249 2 2
-4.67 16.94 -10.44 247 4 2
-4.68 16.93 -10.44 244 6 4
-4.7 16.93 -10.44 239 10 6
-4.71 16.93 -10.44 238 13 11
-4.73 16.93 -10.44 230 19 18
-4.74 16.92 -10.44 221 27 24
-4.76 16.92 -10.44 219 31 28
-4.78 16.91 -10.43 220 31 29
-4.79 16.91 -10.43 222 27 23
-4.81 16.91 -10.43 249 3 2
-4.84 16.9 -10.43 249 3 1
-4.85 16.9 -10.43 246 4 2
-4.87 16.9 -10.43 247 3 2
-4.88 16.89 -10.43 247 3 2
-4.9 16.89 -10.43 247 3 2
-4.93 16.88 -10.43 243 6 3
-4.95 16.88 -10.43 243 6 4
-4.96 16.87 -10.43 242 7 5
-4.98 16.87 -10.43 241 7 6
-4.99 16.86 -10.42 236 12 10
-5.01 16.86 -10.42 233 16 15
-5.02 16.86 -10.42 228 24 21
-5.04 16.85 -10.42 223 27 26
-5.05 16.85 -10.42 213 41 38
-5.07 16.85 -10.42 206 49 45
-5.12 16.84 -10.42 207 42 38
-4.18 17.06 -10.46 208 40 37
-4.2 17.06 -10.46 213 37 33
-4.23 17.05 -10.46 219 26 23
-4.24 17.05 -10.46 219 28 24
-4.26 17.04 -10.46 218 29 25
-4.31 17.04 -10.45 215 34 28
-4.32 17.03 -10.45 222 25 20
-4.34 17.03 -10.45 227 19 14
-4.35 17.03 -10.45 230 18 14
-4.37 17.02 -10.45 239 10 9
-4.38 17.02 -10.45 241 10 7
-4.41 17.01 -10.45 243 7 5
-4.43 17.01 -10.45 242 9 8
-4.45 17 -10.45 236 14 12
-4.46 17 -10.45 228 21 17
-4.48 17 -10.44 228 21 18
-4.49 16.99 -10.44 228 22 18
-4.51 16.99 -10.44 234 10 7
-4.52 16.99 -10.44 234 15 12
-4.54 16.98 -10.44 242 7 6
-4.55 16.98 -10.44 247 5 4
-4.57 16.98 -10.44 247 5 4
-4.58 16.97 -10.44 247 5 5
-4.6 16.97 -10.44 246 6 5
-4.61 16.97 -10.44 246 6 5
-4.63 16.96 -10.44 247 5 5
-4.64 16.96 -10.44 246 7 5
-4.66 16.95 -10.44 246 7 6
-4.67 16.95 -10.44 251 2 1
-4.69 16.95 -10.44 245 7 5
-4.7 16.94 -10.44 248 3 2
-4.72 16.94 -10.44 251 2 1
-4.73 16.94 -10.44 252 1 1
-4.75 16.94 -10.44 253 1 1
-4.76 16.94 -10.44 253 1 1
-4.78 16.93 -10.43 249 4 3
-4.8 16.93 -10.43 252 1 1
-4.81 16.92 -10.43 251 2 0
-4.83 16.92 -10.43 252 1 1
-4.84 16.92 -10.43 252 1 1
-4.86 16.91 -10.43 253 1 1
-4.87 16.91 -10.43 252 1 1
-4.89 16.91 -10.43 251 1 1
-4.9 16.9 -10.43 250 2 1
-4.92 16.9 -10.43 251 1 1
-4.93 16.9 -10.43 251 2 1
-4.95 16.89 -10.43 251 2 1
-4.96 16.89 -10.43 252 1 1
-4.98 16.88 -10.42 253 1 1
-5 16.88 -10.42 253 1 0
-5.01 16.88 -10.42 253 1 0
-5.03 16.87 -10.42 253 0 1
-5.04 16.87 -10.42 253 1 1
-5.06 16.86 -10.42 252 1 1
-5.07 16.86 -10.42 251 2 2
-5.09 16.86 -10.42 244 7 6
-5.1 16.85 -10.42 242 9 7
-5.12 16.85 -10.42 247 4 4
-5.13 16.85 -10.42 248 3 3
-5.15 16.84 -10.42 247 4 1
-5.16 16.84 -10.41 250 2 2
-5.18 16.84 -10.41 248 3 2
-5.2 16.83 -10.41 245 5 3
-5.21 16.83 -10.41 244 5 3
-5.29 16.81 -10.41 226 17 13
-5.3 16.81 -10.41 225 18 14
-5.32 16.8 -10.41 225 19 16
-5.33 16.8 -10.4 214 36 32
-5.35 16.79 -10.4 210 38 33
-4.72 16.96 -10.44 216 36 32
-4.74 16.96 -10.44 238 15 14
-4.76 16.96 -10.44 244 5 4
-4.77 16.95 -10.44 252 1 1
-4.78 16.95 -10.43 246 4 2
-4.8 16.94 -10.43 227 25 23
-4.95 16.91 -10.43 210 41 39
-4.97 16.9 -10.43 225 26 24
-4.98 16.9 -10.43 232 18 16
-5 16.89 -10.43 236 17 15
-5.01 16.89 -10.42 240 13 12
-5.03 16.88 -10.42 240 12 11
-5.05 16.88 -10.42 240 10 8
-5.11 16.87 -10.42 245 5 3
-5.12 16.87 -10.42 249 3 2
-5.14 16.86 -10.42 221 28 26
-5.15 16.86 -10.42 222 27 24
-5.17 16.86 -10.41 226 23 20
-5.18 16.85 -10.41 230 21 19
-5.21 16.84 -10.41 237 14 11
-5.23 16.84 -10.41 238 13 12
-5.26 16.83 -10.41 246 4 2
-5.28 16.83 -10.41 244 5 2
-5.29 16.83 -10.41 245 5 2
-5.31 16.82 -10.41 243 5 2
-5.32 16.82 -10.41 243 5 2
-5.34 16.81 -10.41 248 3 1
-5.35 16.81 -10.4 251 2 1
-5.37 16.8 -10.4 250 2 2
-5.38 16.8 -10.4 241 9 7
-5.4 16.8 -10.4 224 24 20
-5.41 16.79 -10.4 223 25 21
-5.43 16.79 -10.4 241 7 5
-5.44 16.79 -10.4 242 5 4
-5.46 16.79 -10.4 242 6 4
-5.47 16.78 -10.4 239 8 4
-5.49 16.78 -10.4 237 12 8
-5.51 16.77 -10.4 233 13 9
-5.52 16.77 -10.4 225 21 19
-5.55 16.76 -10.4 213 29 24
-5.57 16.76 -10.4 210 33 27
-5.37 16.82 -10.4 208 46 40
-5.39 16.82 -10.4 217 35 32
-5.4 16.81 -10.4 206 45 40
-5.43 16.8 -10.4 205 46 41
-2.68 16.24 -10.46 251 1 0
-2.65 16.25 -10.46 225 17 14
-2.3 16.31 -10.47 253 0 2
-2.31 11.44 -10.22 232 19 19
-6.45 11.45 -10.08 248 4 3
-6.45 11.47 -10.08 246 4 3
-6.71 15.81 -10.31 247 3 2
-6.62 15.83 -10.32 251 2 0
-5.52 16.79 -10.4 207 38 32
-4.29 17.05 -10.46 209 46 41
-4.2 17.05 -10.46 245 6 5
-4.18 17.04 -10.46 253 1 0
-6.55 15.94 -10.33 230 15 15
-6.69 15.81 -10.31 237 13 12
-6.68 15.81 -10.31 237 9 8
-6.63 15.82 -10.32 251 2 1
-6.6 15.83 -10.32 250 3 1
-6.3 15.88 -10.34 249 3 3
-6.17 15.91 -10.34 251 2 0
-6 15.93 -10.34 223 31 28
-5.99 15.93 -10.34 232 22 19
-5.42 16.05 -10.37 246 4 3
-2.27 16.31 -10.47 234 16 16
-2.26 16.31 -10.47 225 22 18
-2.13 16.34 -10.48 207 28 25
-2.12 16.35 -10.48 214 24 20
-9.93 13.01 -10.06 222 19 16
-9.91 13 -10.06 254 1 0
-6.56 12.15 -10.12 213 28 23
-6.57 12.14 -10.12 235 11 8
-6.56 12.14 -10.12 217 27 21
-6.57 12.12 -10.12 245 5 4
-6.56 12.12 -10.12 212 30 23
-6.57 12.11 -10.11 213 30 23
-6.55 12.11 -10.11 233 17 14
-6.56 12.09 -10.11 212 30 23
-6.56 12.08 -10.11 215 29 23
-6.56 12.06 -10.11 212 33 26
-6.57 12.05 -10.11 208 29 22
-6.55 12.05 -10.11 208 36 28
-6.56 12.03 -10.11 213 27 21
-6.56 12.02 -10.11 213 28 21
-6.56 12 -10.11 215 26 21
-6.55 11.99 -10.11 216 24 19
-6.55 11.97 -10.11 216 23 17
-6.54 11.96 -10.11 217 22 17
-6.54 11.94 -10.11 216 23 18
-6.54 11.93 -10.11 212 24 19
-6.53 11.91 -10.11 211 26 21
-9.55 11.16 -9.99 207 21 16
-9.53 11.16 -9.99 211 28 24
-6.53 11.9 -10.11 213 26 21
-9.54 11.14 -9.99 221 17 12
-9.53 11.15 -9.99 215 27 23
-6.53 11.88 -10.11 214 27 21
-9.54 11.13 -9.99 231 13 9
-9.53 11.13 -9.98 218 27 23
-6.52 11.87 -10.11 215 26 20
-9.54 11.12 -9.98 240 7 5
-9.52 11.12 -9.98 219 25 22
-6.52 11.85 -10.11 215 28 22
-9.53 11.1 -9.98 247 4 3
-9.52 11.11 -9.98 215 27 24
-6.53 11.83 -10.11 215 23 18
-6.52 11.84 -10.11 218 27 22
-9.53 11.09 -9.98 249 2 1
-9.51 11.09 -9.98 212 30 27
-6.51 11.82 -10.11 218 26 22
-9.53 11.07 -9.98 243 8 5
-9.52 11.08 -9.98 233 15 12
-9.51 11.08 -9.97 212 31 27
-6.51 11.81 -10.11 215 27 23
-9.53 11.06 -9.97 247 4 2
-9.51 11.06 -9.98 228 20 18
-9.5 11.07 -9.97 211 30 27
-6.51 11.8 -10.11 215 27 22
-9.52 11.05 -9.97 247 3 2
-9.51 11.05 -9.98 229 20 18
-6.5 11.78 -10.11 216 27 23
-9.52 11.03 -9.97 245 4 3
-9.51 11.04 -9.97 234 15 13
-6.51 11.76 -10.11 213 24 18
-6.5 11.77 -10.11 221 25 21
-9.52 11.02 -9.97 244 4 3
-9.5 11.02 -9.97 235 14 13
-6.51 11.75 -10.11 220 20 15
-6.5 11.75 -10.11 223 23 18
-9.51 11 -9.97 246 4 3
-9.5 11.01 -9.97 239 11 11
-6.51 11.73 -10.11 217 19 14
-6.49 11.74 -10.1 225 21 17
-6.5 11.72 -10.11 218 20 14
-6.49 11.72 -10.11 223 22 18
-6.5 11.71 -10.11 243 5 3
-6.49 11.71 -10.11 223 22 17
-6.49 11.69 -10.11 246 4 2
-6.48 11.7 -10.1 225 21 17
-6.49 11.68 -10.11 249 2 1
-6.48 11.68 -10.1 224 21 17
-6.49 11.66 -10.1 249 3 1
-6.47 11.67 -10.1 223 22 18
-6.48 11.65 -10.1 250 2 1
-6.47 11.65 -10.1 221 23 19
-6.48 11.64 -10.1 247 3 2
-6.47 11.64 -10.1 218 28 22
-6.49 11.62 -10.1 213 26 21
-6.48 11.62 -10.1 248 3 3
-6.46 11.62 -10.1 244 5 4
-6.49 11.6 -10.1 216 24 19
-6.47 11.61 -10.1 248 3 2
-6.46 11.61 -10.1 212 34 26
-6.48 11.59 -10.1 219 23 19
-6.47 11.59 -10.1 251 1 1
-6.45 11.6 -10.1 217 27 23
-6.48 11.58 -10.1 231 13 11
-6.47 11.58 -10.09 252 1 1
-6.45 11.58 -10.1 228 18 15
-6.48 11.56 -10.09 234 11 9
-6.46 11.56 -10.09 252 1 1
-6.45 11.57 -10.1 231 17 13
-6.47 11.55 -10.09 234 11 8
-6.46 11.55 -10.09 252 1 0
-6.44 11.55 -10.1 228 18 14
-6.47 11.53 -10.09 235 11 8
-6.46 11.54 -10.09 251 1 1
-6.44 11.54 -10.09 221 24 18
-6.47 11.52 -10.09 235 12 9
-6.45 11.52 -10.09 253 1 1
-6.44 11.52 -10.09 218 25 21
-6.46 11.5 -10.09 226 16 12
-6.45 11.51 -10.09 251 2 0
-6.43 11.5 -10.09 206 31 26
-6.47 11.47 -10.08 228 16 14
-6.46 11.48 -10.09 253 1 0
-6.44 11.48 -10.09 252 1 0
-6.47 11.46 -10.08 234 13 9
-6.44 11.47 -10.09 251 2 1
-6.46 11.45 -10.08 241 6 4
-6.44 11.45 -10.08 251 1 1
-6.46 11.43 -10.08 242 5 3
-6.45 11.43 -10.08 253 1 0
-6.43 11.44 -10.08 251 2 0
-6.47 11.41 -10.09 222 25 20
-6.46 11.42 -10.08 250 2 2
-6.44 11.42 -10.08 253 0 1
-6.43 11.42 -10.08 252 1 1
-6.47 11.4 -10.08 217 29 24
-6.45 11.4 -10.08 251 2 1
-6.44 11.4 -10.08 252 1 1
-6.42 11.41 -10.08 251 2 0
-6.46 11.38 -10.09 210 36 29
-6.45 11.39 -10.09 249 2 2
-6.44 11.39 -10.09 252 1 0
-6.42 11.39 -10.09 249 3 1
-6.46 11.37 -10.09 206 39 32
-6.45 11.37 -10.08 244 7 5
-6.43 11.38 -10.08 252 1 1
-6.42 11.38 -10.08 245 5 3
-6.46 11.35 -10.09 213 36 30
-6.44 11.36 -10.08 246 6 4
-6.43 11.36 -10.08 251 2 1
-6.41 11.36 -10.08 231 12 9
-6.47 11.34 -10.09 209 36 28
-6.45 11.34 -10.08 230 19 16
-6.44 11.34 -10.08 251 2 0
-6.43 11.35 -10.08 252 1 1
-6.41 11.35 -10.08 217 19 16
-6.54 11.3 -10.09 230 13 9
-6.52 11.31 -10.09 237 9 4
-6.51 11.31 -10.09 239 8 6
-6.49 11.31 -10.09 236 14 11
-6.48 11.32 -10.09 231 18 13
-6.46 11.32 -10.09 241 9 7
-6.45 11.33 -10.09 251 2 1
-6.44 11.33 -10.08 252 1 1
-6.42 11.33 -10.08 253 0 1
-6.82 11.22 -10.08 215 24 18
-6.78 11.23 -10.08 230 18 14
-6.76 11.23 -10.08 248 3 2
-6.75 11.24 -10.08 249 2 2
-6.73 11.24 -10.08 247 4 3
-6.72 11.24 -10.08 244 7 5
-6.7 11.25 -10.08 244 6 5
-6.69 11.25 -10.08 246 5 5
-6.68 11.25 -10.08 243 7 7
-6.66 11.26 -10.09 236 15 11
-6.65 11.26 -10.09 236 15 13
-6.63 11.26 -10.09 228 18 15
-6.62 11.27 -10.09 222 25 20
-6.6 11.27 -10.09 226 23 20
-6.59 11.28 -10.09 226 22 18
-6.56 11.28 -10.09 238 11 8
-6.55 11.29 -10.09 250 2 2
-6.53 11.29 -10.09 252 2 0
-6.52 11.29 -10.09 251 1 1
-6.5 11.3 -10.09 253 1 1
-6.49 11.3 -10.09 252 1 0
-6.47 11.3 -10.09 253 1 1
-6.46 11.31 -10.09 252 1 1
-6.45 11.31 -10.09 253 1 1
-6.43 11.31 -10.09 252 1 0
-6.42 11.32 -10.09 252 1 1
-6.4 11.32 -10.09 234 14 13
-6.77 11.22 -10.08 218 28 22
-6.76 11.22 -10.08 241 10 6
-6.74 11.22 -10.08 243 9 6
-6.73 11.23 -10.08 243 8 6
-6.72 11.23 -10.08 245 5 3
-6.7 11.23 -10.08 247 4 2
-6.69 11.24 -10.08 247 4 1
-6.67 11.24 -10.08 251 2 1
-6.66 11.24 -10.09 252 2 1
-6.64 11.25 -10.09 252 1 0
-6.63 11.25 -10.09 253 1 0
-6.61 11.25 -10.09 253 1 1
-6.6 11.26 -10.09 252 1 0
-6.59 11.26 -10.09 252 1 0
-6.57 11.26 -10.09 253 0 1
-6.56 11.27 -10.09 253 1 1
-6.54 11.27 -10.09 253 0 1
-6.53 11.27 -10.09 252 1 1
-6.51 11.28 -10.09 252 1 1
-6.5 11.28 -10.09 249 3 1
-6.49 11.29 -10.09 248 4 2
-6.47 11.29 -10.09 245 5 3
-6.46 11.29 -10.09 240 8 6
-6.44 11.3 -10.09 233 14 11
-6.43 11.3 -10.09 236 12 8
-6.41 11.3 -10.09 237 11 8
-6.4 11.31 -10.09 207 37 30
-6.65 11.23 -10.08 208 32 23
-6.64 11.23 -10.09 233 13 9
-6.63 11.24 -10.08 235 12 8
-6.61 11.24 -10.08 234 12 8
-6.6 11.24 -10.09 238 9 6
-6.58 11.25 -10.09 241 7 5
-6.57 11.25 -10.09 241 9 7
-6.55 11.25 -10.09 241 8 7
-6.54 11.26 -10.09 235 12 8
-6.53 11.26 -10.09 233 13 8
-6.51 11.26 -10.09 224 17 11
-5.7 11.44 -10.13 227 19 14
-5.66 11.45 -10.13 206 37 25
-5.64 11.46 -10.13 236 12 7
-5.63 11.46 -10.13 237 10 8
-5.61 11.47 -10.13 241 8 5
-5.6 11.47 -10.13 239 9 6
-5.58 11.47 -10.13 236 14 11
-5.57 11.48 -10.13 227 21 17
-5.56 11.48 -10.13 227 22 19
-5.54 11.48 -10.13 235 16 12
-5.53 11.49 -10.13 246 5 3
-5.51 11.49 -10.13 250 2 1
-5.5 11.49 -10.13 250 2 1
-5.49 11.5 -10.13 247 4 3
-5.47 11.5 -10.13 244 5 4
-5.46 11.5 -10.13 239 11 8
-5.44 11.51 -10.13 236 14 11
-5.43 11.51 -10.13 243 8 6
-5.42 11.51 -10.13 249 3 2
-5.4 11.52 -10.13 240 10 7
-5.37 11.53 -10.13 210 35 31
-5.67 11.44 -10.13 211 35 30
-5.64 11.44 -10.12 207 38 31
-5.61 11.45 -10.12 210 39 34
-5.6 11.45 -10.12 220 29 26
-5.58 11.46 -10.12 220 29 25
-5.57 11.46 -10.12 227 22 18
-5.55 11.47 -10.13 234 17 13
-5.54 11.47 -10.13 241 10 9
-5.52 11.47 -10.13 242 10 8
-5.51 11.48 -10.13 241 11 8
-5.49 11.48 -10.13 243 9 6
-5.48 11.48 -10.13 253 0 0
-5.47 11.49 -10.13 249 3 2
-5.46 11.49 -10.13 249 3 1
-5.44 11.49 -10.13 243 8 5
-5.43 11.5 -10.13 243 7 4
-5.41 11.5 -10.13 245 5 2
-5.39 11.5 -10.13 250 3 1
-5.38 11.51 -10.13 249 2 2
-5.35 11.51 -10.13 249 3 1
-5.34 11.52 -10.13 247 4 1
-5.32 11.52 -10.13 239 8 5
-5.31 11.52 -10.13 205 36 28
-5.29 11.53 -10.13 209 33 26
-5.28 11.53 -10.13 249 3 1
-5.27 11.53 -10.13 239 9 6
-5.25 11.54 -10.13 244 5 3
-5.24 11.54 -10.13 240 7 5
-5.22 11.54 -10.14 239 10 7
-5.21 11.55 -10.14 239 10 9
-5.2 11.55 -10.14 233 16 13
-5.18 11.56 -10.14 226 22 19
-5.17 11.56 -10.14 217 29 24
-5.15 11.56 -10.14 220 27 22
-5.14 11.57 -10.14 225 23 21
-5.12 11.57 -10.14 229 19 15
-5.11 11.57 -10.14 221 25 17
-5.09 11.58 -10.14 215 29 21
-5.25 11.53 -10.13 225 22 16
-5.22 11.53 -10.14 214 34 25
-5.21 11.53 -10.14 216 32 25
-5.19 11.54 -10.14 222 26 21
-5.18 11.54 -10.14 223 25 19
-5.16 11.55 -10.14 231 16 11
-5.15 11.55 -10.14 223 23 17
-5.13 11.55 -10.14 223 25 19
-5.12 11.56 -10.14 225 22 16
-5.1 11.56 -10.14 224 23 17
-5.09 11.56 -10.14 213 32 25
-4.59 11.02 -10.14 207 40 41
-4.27 11.1 -10.15 209 46 43
-4.25 11.11 -10.15 234 15 12
-4.24 11.11 -10.15 227 19 17
-4.22 11.11 -10.15 212 28 23
-4.58 11.01 -10.14 208 43 43
-4.57 11.01 -10.14 211 40 40
-4.25 11.09 -10.15 241 11 10
-4.24 11.09 -10.15 252 1 0
-4.22 11.1 -10.15 251 2 1
-4.21 11.1 -10.15 250 2 1
-4.19 11.1 -10.15 223 28 26
-4.58 11 -10.14 227 29 28
-4.57 11 -10.14 237 15 14
-4.55 11 -10.14 243 9 9
-4.54 11.01 -10.14 227 26 25
-4.52 11.01 -10.14 208 45 44
-4.45 11.03 -10.14 210 46 46
-4.25 11.08 -10.15 219 38 37
-4.23 11.08 -10.15 242 11 10
-4.22 11.08 -10.15 250 2 1
-4.2 11.09 -10.15 240 12 11
-4.5 11 -10.14 251 2 1
-4.48 11.01 -10.14 234 16 15
-4.46 11.01 -10.14 221 31 30
-4.45 11.01 -10.14 222 32 33
-4.43 11.02 -10.14 213 42 40
-4.4 11.02 -10.14 213 42 41
-4.39 11.03 -10.14 214 42 41
-4.37 11.03 -10.14 210 43 43
-4.36 11.03 -10.15 238 13 11
-4.35 11.04 -10.15 210 42 42
-4.33 11.04 -10.15 213 39 37
-4.32 11.04 -10.15 213 37 35
-4.3 11.05 -10.15 208 47 44
-4.29 11.05 -10.15 209 47 45
-4.27 11.05 -10.15 216 43 40
-4.26 11.06 -10.15 226 31 30
-4.24 11.06 -10.15 227 30 28
-4.23 11.06 -10.15 254 0 0
-4.21 11.07 -10.15 224 32 31
-4.2 11.07 -10.15 225 32 32
-4.19 11.08 -10.15 249 3 3
-4.12 11.09 -10.15 206 48 46
-4.46 11 -10.14 236 14 13
-4.44 11 -10.14 235 14 12
-4.43 11 -10.14 242 7 4
-4.42 11.01 -10.14 244 5 2
-4.4 11.01 -10.14 248 3 1
-4.37 11.02 -10.14 248 3 2
-4.36 11.02 -10.15 249 2 2
-4.34 11.02 -10.15 253 1 0
-4.33 11.03 -10.15 250 2 1
-4.31 11.03 -10.15 250 2 2
-4.3 11.03 -10.15 244 6 5
-4.28 11.04 -10.15 246 5 4
-4.27 11.04 -10.15 249 3 3
-4.25 11.04 -10.15 251 2 1
-4.24 11.05 -10.15 247 3 2
-4.23 11.05 -10.15 254 0 0
-4.21 11.05 -10.15 211 41 41
-4.2 11.06 -10.15 253 1 0
-4.19 11.06 -10.15 219 29 29
-4.17 11.06 -10.15 242 7 6
-4.16 11.07 -10.15 242 9 8
-4.14 11.07 -10.15 229 23 22
-4.13 11.07 -10.15 218 37 36
-4.11 11.08 -10.16 217 39 37
-4.1 11.08 -10.16 228 26 24
-4.08 11.08 -10.16 217 33 34
-4.07 11.09 -10.16 207 42 42
-4.05 11.09 -10.16 207 44 43
-4.38 11 -10.14 208 42 39
-4.37 11 -10.14 206 45 45
-4.35 11 -10.15 213 38 37
-4.34 11.01 -10.15 241 8 8
-4.33 11.01 -10.15 224 25 25
-4.31 11.02 -10.15 218 31 30
-4.29 11.02 -10.15 220 28 27
-4.28 11.02 -10.15 223 27 26
-4.27 11.03 -10.15 246 4 3
-4.25 11.03 -10.15 222 27 26
-4.24 11.03 -10.15 224 27 27
-4.23 11.04 -10.15 219 33 32
-4.21 11.04 -10.15 212 41 41
-4.2 11.04 -10.15 209 42 41
-4.18 11.05 -10.15 213 39 39
-4.17 11.05 -10.15 231 20 20
-4.15 11.05 -10.15 243 8 7
-4.14 11.06 -10.15 239 15 14
-4.12 11.06 -10.15 224 29 28
-4.11 11.06 -10.15 219 32 32
-4.09 11.07 -10.15 221 30 30
-4.08 11.07 -10.15 214 38 37
-4.07 11.07 -10.16 208 39 38
-4.05 11.08 -10.16 208 40 39
-4.04 11.08 -10.16 207 39 38
-4.02 11.08 -10.16 207 38 38
-4.01 11.09 -10.16 207 39 38
-3.98 11.09 -10.16 207 42 40
-4.18 11.03 -10.15 222 26 25
-4.02 11.07 -10.16 209 44 43
-1.78 11.53 -10.26 225 19 16
-1.76 11.52 -10.26 209 32 31
-1.67 11.48 -10.26 205 49 45
-2.48 11.02 -10.17 242 7 6
-2.6 11.02 -10.17 245 5 5
-2.63 11.01 -10.17 235 14 13
-1.59 11.48 -10.25 207 47 44
-1.6 11.48 -10.25 215 41 38
-1.62 11.48 -10.25 222 31 29
-1.63 11.47 -10.25 224 30 29
-1.65 11.47 -10.25 216 40 39
-1.66 11.46 -10.25 207 48 46
-1.56 11.51 -10.26 224 29 28
-1.57 11.5 -10.26 237 16 15
-1.59 11.5 -10.25 244 8 7
-1.61 11.49 -10.25 242 6 4
-1.62 11.49 -10.25 245 5 4
-1.64 11.49 -10.25 243 6 4
-1.65 11.48 -10.25 241 8 5
-1.67 11.48 -10.25 241 9 7
-1.68 11.48 -10.25 244 9 9
-1.7 11.47 -10.25 229 27 25
-1.53 11.52 -10.26 233 17 16
-1.55 11.52 -10.26 237 11 9
-1.56 11.52 -10.25 234 13 10
-1.58 11.52 -10.26 220 28 23
-1.68 11.49 -10.25 229 21 19
-1.7 11.49 -10.25 250 2 2
-1.71 11.49 -10.25 249 3 2
-1.73 11.49 -10.25 227 21 17
-1.51 11.55 -10.26 223 25 23
-1.52 11.54 -10.26 250 3 1
-1.53 11.54 -10.26 244 7 6
-1.7 11.51 -10.25 205 42 34
-1.72 11.5 -10.25 231 16 12
-1.73 11.5 -10.25 248 3 2
-1.75 11.5 -10.25 246 5 4
-1.76 11.49 -10.25 208 42 39
-1.19 11.63 -10.26 217 23 23
-1.2 11.63 -10.26 214 28 27
-1.22 11.63 -10.26 213 28 28
-1.27 11.61 -10.25 214 27 26
-1.29 11.61 -10.25 239 9 7
-1.3 11.61 -10.25 242 14 13
-1.32 11.6 -10.25 236 20 18
-1.35 11.59 -10.24 224 32 31
-1.37 11.59 -10.25 230 24 23
-1.38 11.59 -10.25 225 32 31
-1.39 11.59 -10.25 211 40 39
-1.45 11.57 -10.26 209 40 37
-1.47 11.57 -10.26 211 37 36
-1.49 11.56 -10.26 238 17 16
-1.52 11.56 -10.26 251 1 1
-1.54 11.56 -10.26 243 8 6
-1.55 11.55 -10.25 206 33 30
-1.75 11.51 -10.25 246 5 5
-1.76 11.51 -10.25 249 3 2
-1.78 11.51 -10.25 213 38 37
-1.15 11.66 -10.27 222 28 25
-1.16 11.65 -10.27 241 8 6
-1.18 11.65 -10.26 250 2 3
-1.19 11.65 -10.26 219 29 28
-1.21 11.65 -10.26 227 19 16
-1.22 11.64 -10.26 245 5 3
-1.24 11.64 -10.26 249 3 1
-1.25 11.63 -10.26 250 2 1
-1.28 11.63 -10.25 251 2 1
-1.29 11.62 -10.25 252 1 1
-1.31 11.62 -10.24 253 1 1
-1.32 11.62 -10.25 252 1 0
-1.34 11.61 -10.24 252 1 1
-1.35 11.61 -10.25 251 2 0
-1.37 11.61 -10.25 252 1 1
-1.38 11.6 -10.25 253 1 1
-1.4 11.6 -10.25 252 1 1
-1.41 11.6 -10.25 249 3 1
-1.42 11.59 -10.25 249 3 2
-1.44 11.59 -10.25 248 3 2
-1.45 11.59 -10.26 250 2 1
-1.47 11.58 -10.26 250 2 0
-1.48 11.58 -10.26 252 2 1
-1.5 11.58 -10.26 252 1 1
-1.51 11.58 -10.26 252 1 1
-1.53 11.58 -10.26 252 1 1
-1.75 11.53 -10.25 223 25 22
-1.77 11.52 -10.25 252 2 1
-1.78 11.52 -10.25 250 2 2
-1.8 11.52 -10.25 229 18 15
-1.81 11.51 -10.25 206 43 42
-1.24 11.65 -10.26 228 23 22
-1.27 11.64 -10.26 253 1 0
-1.29 11.64 -10.25 253 1 0
-1.31 11.64 -10.25 253 1 0
-1.34 11.62 -10.25 254 0 0
-1.36 11.62 -10.25 253 1 0
-1.37 11.62 -10.25 253 1 1
-1.38 11.62 -10.25 253 0 1
-1.4 11.62 -10.25 253 1 0
-1.41 11.61 -10.25 253 1 0
-1.43 11.61 -10.25 253 1 0
-1.44 11.61 -10.26 253 1 1
-1.45 11.6 -10.26 253 1 1
-1.47 11.6 -10.26 252 1 1
-1.49 11.6 -10.26 253 1 1
-1.5 11.59 -10.26 250 2 1
-1.52 11.59 -10.26 238 11 11
-1.53 11.59 -10.26 218 29 25
-1.77 11.54 -10.25 243 7 5
-1.8 11.53 -10.25 252 1 1
-1.81 11.53 -10.25 251 2 1
-1.83 11.52 -10.25 245 5 2
-1.84 11.52 -10.25 224 26 25
-1.86 11.52 -10.25 235 15 13
-1.88 11.51 -10.25 246 5 4
-1.89 11.51 -10.24 250 2 2
-1.91 11.51 -10.24 248 3 2
-1.92 11.5 -10.25 246 4 3
-1.94 11.5 -10.24 246 4 3
-1.95 11.49 -10.24 242 6 6
-1.97 11.49 -10.24 238 9 8
-2 11.49 -10.24 206 43 43
-2.01 11.49 -10.24 205 45 44
-2.1 11.47 -10.23 205 43 41
-2.19 11.45 -10.23 208 45 45
-2.27 11.42 -10.22 220 32 33
-2.29 11.42 -10.22 221 32 32
-2.3 11.42 -10.22 218 34 34
-1.26 11.66 -10.25 250 2 1
-1.29 11.66 -10.25 253 1 1
-1.32 11.65 -10.25 249 3 2
-1.34 11.64 -10.25 251 1 0
-1.36 11.64 -10.25 253 1 1
-1.37 11.64 -10.25 253 1 0
-1.39 11.63 -10.25 253 1 1
-1.4 11.63 -10.25 253 0 1
-1.41 11.63 -10.25 253 1 0
-1.43 11.62 -10.26 252 1 1
-1.44 11.62 -10.26 251 2 1
-1.46 11.62 -10.26 246 4 2
-1.47 11.62 -10.26 237 9 6
-1.49 11.61 -10.26 215 24 23
-1.79 11.55 -10.25 241 9 7
-1.8 11.55 -10.25 243 8 6
-1.82 11.54 -10.25 226 23 22
-1.83 11.54 -10.25 216 31 32
-1.85 11.54 -10.25 249 3 1
-1.86 11.53 -10.25 243 7 6
-1.89 11.52 -10.25 253 1 0
-1.91 11.52 -10.24 253 1 0
-1.92 11.52 -10.25 254 0 0
-1.94 11.52 -10.25 253 0 0
-1.95 11.51 -10.24 238 14 12
-1.97 11.51 -10.24 238 14 13
-2 11.5 -10.24 210 43 41
-2.02 11.5 -10.24 210 47 48
-2.23 11.45 -10.23 229 32 32
-2.25 11.45 -10.22 228 33 34
-2.29 11.44 -10.22 222 39 39
-2.31 11.43 -10.22 226 34 35
-2.32 11.43 -10.22 212 47 48
-2.38 11.42 -10.22 209 47 47
-2.41 11.41 -10.22 217 38 38
-2.45 11.4 -10.22 208 46 46
-2.47 11.4 -10.22 229 22 21
-2.48 11.39 -10.22 241 9 9
-2.5 11.39 -10.21 245 5 5
-2.52 11.39 -10.21 246 6 5
-2.53 11.38 -10.21 245 6 6
-2.55 11.38 -10.21 245 7 6
-2.57 11.38 -10.2 236 18 17
-2.58 11.37 -10.2 229 26 26
-2.6 11.37 -10.2 218 36 36
-1.27 11.68 -10.26 236 12 9
-1.28 11.68 -10.26 252 1 1
-1.31 11.67 -10.25 227 23 22
-1.35 11.66 -10.25 229 20 18
-1.36 11.65 -10.25 244 5 4
-1.38 11.65 -10.25 251 2 1
-1.39 11.65 -10.25 251 2 1
-1.4 11.65 -10.26 253 1 1
-1.42 11.64 -10.26 248 3 2
-1.43 11.64 -10.26 244 7 6
-1.44 11.64 -10.26 211 37 36
-1.87 11.55 -10.25 241 8 5
-1.88 11.54 -10.25 251 2 1
-1.9 11.54 -10.25 229 23 22
-1.91 11.53 -10.24 226 24 24
-1.93 11.53 -10.24 220 30 30
-1.94 11.53 -10.24 220 31 30
-1.96 11.53 -10.25 253 1 1
-1.97 11.52 -10.25 220 32 32
-2.02 11.52 -10.24 215 40 40
-2.42 11.43 -10.22 216 46 47
-2.44 11.42 -10.22 226 32 32
-2.46 11.42 -10.22 238 15 14
-2.47 11.41 -10.22 250 3 1
-2.49 11.41 -10.22 249 2 2
-2.5 11.41 -10.22 249 3 2
-2.53 11.4 -10.21 245 6 5
-2.55 11.4 -10.21 232 18 18
-2.57 11.39 -10.21 226 24 22
-2.58 11.39 -10.2 221 33 31
-2.6 11.38 -10.2 222 35 34
-2.62 11.38 -10.2 215 41 42
-1.28 11.69 -10.26 212 28 26
-1.39 11.66 -10.26 210 34 33
-1.41 11.66 -10.26 220 27 25
-1.42 11.66 -10.26 215 30 27
-1.9 11.56 -10.25 207 38 35
-1.92 11.55 -10.25 215 31 30
-1.93 11.55 -10.24 220 29 28
-1.97 11.54 -10.25 245 7 6
-1.99 11.54 -10.25 210 16 14
-2.41 11.44 -10.22 206 44 43
-2.46 11.43 -10.22 216 31 29
-2.48 11.43 -10.22 205 41 40
-4.08 11.07 -10.16 211 36 35
-4.1 11.07 -10.16 216 33 32
-4.11 11.06 -10.16 216 33 32
-4.13 11.06 -10.15 209 42 40
-4.14 11.06 -10.15 217 31 29
-4.16 11.06 -10.15 244 6 5
-4.17 11.05 -10.15 216 29 28
-4.19 11.05 -10.15 212 39 38
-4.23 11.04 -10.15 211 40 38
-4.29 11.02 -10.15 209 38 36
-4.31 11.02 -10.14 221 26 25
-4.32 11.02 -10.14 225 21 19
-4.34 11.01 -10.14 227 19 16
-4.35 11.01 -10.14 230 18 17
-4.37 11.01 -10.14 237 12 11
-4.38 11 -10.14 240 7 5
-4.41 11 -10.13 232 17 16
-1.9 11.57 -10.25 208 40 37
-4.18 11.07 -10.15 208 39 37
-4.19 11.06 -10.15 217 34 32
-4.21 11.06 -10.15 235 16 15
-4.22 11.06 -10.15 221 33 33
-4.23 11.05 -10.15 218 33 30
-4.25 11.05 -10.15 219 32 30
-4.26 11.05 -10.15 222 28 26
-4.28 11.04 -10.15 234 18 16
-4.29 11.04 -10.15 240 11 10
-4.31 11.03 -10.15 245 5 3
-4.32 11.03 -10.14 246 4 2
-4.34 11.03 -10.14 245 4 3
-4.35 11.02 -10.14 245 4 3
-4.37 11.02 -10.14 227 23 22
-4.4 11.01 -10.14 229 23 21
-4.42 11.01 -10.13 231 20 19
-5.04 11.57 -10.15 210 36 29
-5.06 11.57 -10.15 213 33 25
-5.07 11.56 -10.15 215 31 24
-5.09 11.56 -10.14 216 32 26
-5.11 11.56 -10.14 214 34 27
-5.12 11.56 -10.14 215 33 27
-5.14 11.55 -10.14 214 34 27
-5.15 11.55 -10.14 214 34 29
-5.17 11.55 -10.14 212 35 28
-5.02 11.59 -10.15 212 30 23
-5.03 11.59 -10.15 206 37 29
-5.05 11.59 -10.15 207 39 32
-5.06 11.58 -10.15 208 40 33
-5.08 11.58 -10.15 207 43 36
-5.09 11.58 -10.14 207 42 36
-5.19 11.56 -10.14 205 42 36
-5.2 11.55 -10.14 210 37 33
-5.22 11.55 -10.14 207 40 33
-5.51 11.48 -10.13 225 21 15
-5.53 11.48 -10.13 227 21 16
-5.54 11.48 -10.13 226 22 16
-5.55 11.47 -10.13 217 30 24
-5.57 11.47 -10.12 212 34 28
-5.58 11.47 -10.12 214 32 25
-5.6 11.46 -10.13 214 31 25
-5.62 11.46 -10.13 213 35 27
-5.63 11.46 -10.13 214 29 25
-5.64 11.45 -10.13 215 29 21
-5.66 11.45 -10.12 214 29 23
-5.67 11.45 -10.12 206 35 27
-5.51 11.5 -10.13 210 39 33
-5.68 11.46 -10.12 205 38 29
-6.41 11.3 -10.08 209 26 21
-6.59 11.26 -10.09 209 32 24
-6.61 11.26 -10.09 216 28 21
-6.62 11.25 -10.08 221 22 16
-6.64 11.25 -10.08 228 16 13
-6.65 11.25 -10.08 228 17 14
-6.67 11.24 -10.08 223 22 16
-6.68 11.24 -10.08 225 21 16
-6.7 11.23 -10.08 227 19 14
-6.71 11.23 -10.08 228 19 15
-6.72 11.23 -10.08 223 24 19
-6.74 11.22 -10.08 219 25 19
-6.75 11.22 -10.07 206 34 26
-6.42 11.31 -10.08 210 23 18
-6.43 11.31 -10.08 212 27 22
-6.51 11.29 -10.09 220 25 18
-6.52 11.29 -10.09 220 25 19
-6.54 11.29 -10.09 221 28 22
-6.55 11.28 -10.09 221 28 23
-6.57 11.28 -10.09 223 25 22
-6.58 11.28 -10.09 220 28 22
-6.6 11.27 -10.09 210 35 29
-6.66 11.26 -10.08 205 42 36
-6.67 11.26 -10.08 221 28 23
-6.68 11.25 -10.08 243 5 4
-6.7 11.25 -10.08 248 4 2
-6.71 11.25 -10.08 237 14 11
-6.73 11.24 -10.08 233 18 14
-6.74 11.24 -10.08 238 13 10
-6.76 11.23 -10.07 240 10 8
-6.77 11.23 -10.07 233 15 11
-6.79 11.23 -10.07 218 24 19
-6.41 11.33 -10.08 216 27 21
-6.42 11.32 -10.08 241 7 5
-6.44 11.32 -10.08 224 20 15
-6.51 11.31 -10.09 212 31 22
-6.53 11.31 -10.09 212 31 22
-6.54 11.3 -10.09 209 32 25
-6.46 11.52 -10.09 226 19 16
-6.45 11.54 -10.09 235 14 10
-6.47 11.54 -10.09 230 17 14
-6.45 11.55 -10.09 239 11 8
-6.47 11.55 -10.09 236 12 9
-6.46 11.57 -10.09 238 10 7
-6.47 11.56 -10.09 238 9 6
-6.46 11.58 -10.09 234 14 11
-6.48 11.58 -10.09 239 9 6
-6.46 11.6 -10.1 236 14 11
-6.48 11.59 -10.09 244 6 4
-6.47 11.61 -10.1 236 13 11
-6.48 11.61 -10.1 247 4 3
-6.47 11.63 -10.1 241 9 8
-6.48 11.62 -10.1 236 10 7
-6.47 11.64 -10.1 243 8 5
-6.49 11.64 -10.1 240 7 6
-6.48 11.66 -10.1 246 6 4
-6.49 11.66 -10.1 236 9 7
-6.48 11.67 -10.1 249 3 2
-6.49 11.67 -10.1 235 10 8
-6.48 11.69 -10.1 250 2 1
-6.5 11.69 -10.11 232 13 10
-9.5 11 -9.97 246 4 3
-9.51 11 -9.97 232 16 14
-6.47 11.71 -10.11 206 39 30
-6.49 11.7 -10.1 250 2 1
-6.5 11.7 -10.11 227 15 11
-9.5 11.01 -9.97 245 5 4
-9.52 11.01 -9.97 233 15 13
-6.49 11.72 -10.11 249 3 1
-6.5 11.72 -10.11 222 18 13
-9.51 11.03 -9.97 241 8 5
-9.52 11.03 -9.97 235 13 12
-9.51 11.04 -9.97 236 11 8
-9.52 11.04 -9.97 236 13 11
-6.5 11.75 -10.11 248 3 1
-6.51 11.74 -10.11 209 25 17
-9.53 11.06 -9.97 234 12 11
-6.5 11.76 -10.11 248 3 2
-6.51 11.76 -10.11 219 20 14
-9.52 11.07 -9.97 231 13 11
-9.53 11.07 -9.97 235 12 10
-6.5 11.78 -10.11 249 3 1
-6.52 11.77 -10.11 213 22 17
-9.52 11.09 -9.98 233 12 10
-9.53 11.09 -9.98 227 16 13
-6.51 11.79 -10.11 245 5 3
-9.52 11.1 -9.98 235 11 9
-9.54 11.1 -9.98 219 20 17
-6.51 11.81 -10.11 244 5 4
-9.53 11.12 -9.98 230 14 11
-9.54 11.12 -9.98 213 25 21
-6.51 11.82 -10.11 242 6 4
-6.53 11.82 -10.11 207 31 26
-9.53 11.14 -9.99 216 26 23
-9.55 11.13 -9.99 210 25 20
-6.52 11.84 -10.11 242 6 4
-6.53 11.83 -10.11 209 28 23
-9.54 11.15 -9.99 210 31 28
-6.52 11.85 -10.11 241 6 5
-9.54 11.17 -9.99 211 29 25
-9.55 11.16 -9.99 205 25 18
-6.52 11.87 -10.11 240 6 5
-9.54 11.18 -10 209 30 24
-6.53 11.88 -10.11 220 22 18
-9.55 11.2 -10 208 31 25
-6.53 11.9 -10.12 217 20 17
-9.55 11.21 -10 209 31 27
-9.56 11.23 -10.01 205 32 27
-9.56 11.24 -10 208 26 21
-6.54 11.94 -10.12 211 21 17
-9.56 11.26 -10.01 215 22 18
-6.55 11.96 -10.12 210 18 14
-9.57 11.27 -10.01 206 26 21
-6.55 11.97 -10.11 210 22 18
-6.55 11.98 -10.11 210 23 18
-6.55 12 -10.12 210 22 18
-6.56 12.01 -10.12 210 23 18
-6.56 12.03 -10.12 213 19 15
-6.56 12.04 -10.11 231 12 10
-6.56 12.06 -10.11 238 9 7
-6.57 12.07 -10.11 242 6 4
-6.55 12.09 -10.11 213 31 25
-6.57 12.09 -10.11 244 5 3
-6.56 12.1 -10.11 218 25 20
-6.57 12.1 -10.11 244 5 3
-6.56 12.12 -10.11 227 18 14
-6.58 12.12 -10.11 242 7 5
-6.56 12.13 -10.11 222 21 17
-6.58 12.13 -10.12 231 15 12
-6.57 12.15 -10.12 210 32 25
-6.58 12.15 -10.12 214 25 20
-6.58 12.16 -10.12 213 24 20
-6.57 12.18 -10.12 215 27 22
-6.59 12.18 -10.12 211 25 20
-2.33 11.02 -10.17 238 15 14
-2.37 11.02 -10.16 251 2 1
-2.39 11.02 -10.16 253 1 0
-2.4 11.02 -10.17 253 1 0
-2.41 11.01 -10.17 253 1 0
-2.44 11.01 -10.17 228 19 17
-2.38 11.04 -10.16 253 0 1
-2.39 11.03 -10.16 253 1 0
-2.45 11.02 -10.17 244 9 9
-2.46 11.02 -10.17 248 4 4
-2.48 11.01 -10.17 253 1 1
-2.38 11.05 -10.16 212 27 25
-2.39 11.05 -10.16 226 18 18
-2.41 11.04 -10.16 227 19 17
-2.59 11.02 -10.16 226 23 21
-2.6 11.02 -10.17 249 3 3
-1.61 11.49 -10.25 225 36 35
-1.62 11.49 -10.25 243 9 7
-1.64 11.48 -10.25 240 16 16
-1.66 11.48 -10.25 239 17 15
-1.67 11.48 -10.25 239 9 6
-1.69 11.47 -10.25 240 10 7
-1.53 11.52 -10.26 215 38 36
-1.55 11.52 -10.26 228 24 22
-1.56 11.51 -10.26 234 16 12
-1.58 11.51 -10.26 240 7 5
-1.59 11.5 -10.26 234 13 10
-1.61 11.5 -10.25 225 19 17
-1.69 11.49 -10.25 224 26 22
-1.7 11.49 -10.25 243 6 3
-1.72 11.48 -10.25 210 41 39
-1.51 11.54 -10.26 209 45 42
-1.52 11.54 -10.26 243 7 6
-1.54 11.54 -10.26 249 3 2
-1.55 11.53 -10.26 229 15 12
-1.71 11.5 -10.25 214 34 28
-1.72 11.5 -10.25 224 25 22
-1.73 11.49 -10.25 216 30 26
-1.51 11.56 -10.26 231 10 6
-1.52 11.56 -10.26 246 5 2
-1.75 11.51 -10.25 218 24 22
-1.36 11.6 -10.25 214 27 23
-1.37 11.6 -10.25 205 41 40
-1.39 11.6 -10.26 206 41 38
-1.4 11.6 -10.26 230 18 17
-1.41 11.59 -10.26 233 16 14
-1.43 11.59 -10.26 229 22 18
-1.44 11.59 -10.26 228 24 22
-1.46 11.58 -10.26 216 29 27
-1.51 11.57 -10.26 243 6 4
-1.77 11.52 -10.25 229 16 14
-1.29 11.63 -10.25 212 33 33
-1.32 11.63 -10.25 225 27 26
-1.35 11.62 -10.25 211 41 37
-1.36 11.62 -10.25 225 27 27
-1.38 11.61 -10.25 228 29 28
-1.39 11.61 -10.25 242 10 10
-1.4 11.61 -10.26 250 2 1
-1.42 11.61 -10.26 251 2 1
-1.43 11.6 -10.26 250 2 3
-1.45 11.6 -10.26 241 6 4
-1.46 11.6 -10.26 211 24 22
-1.78 11.53 -10.25 235 14 12
-1.79 11.53 -10.25 236 8 6
-2.05 11.46 -10.23 214 36 35
-2.07 11.46 -10.23 212 41 40
-2.08 11.46 -10.23 209 42 42
-2.24 11.42 -10.22 221 22 21
-2.28 11.41 -10.22 217 34 33
-2.29 11.41 -10.22 218 33 35
-2.31 11.41 -10.22 220 31 31
-2.33 11.4 -10.22 215 34 30
-1.41 11.63 -10.26 214 34 34
-1.42 11.62 -10.26 214 38 37
-1.78 11.54 -10.25 208 39 36
-1.92 11.51 -10.24 231 14 13
-1.94 11.51 -10.24 241 6 6
-1.95 11.5 -10.24 239 9 5
-1.97 11.5 -10.24 231 14 11
-1.98 11.5 -10.24 228 23 23
-1.99 11.49 -10.24 237 14 13
-2.01 11.49 -10.24 240 8 9
-2.03 11.48 -10.23 240 7 8
-2.04 11.48 -10.24 246 4 4
-2.06 11.48 -10.23 249 3 1
-2.07 11.47 -10.23 249 3 1
-2.09 11.47 -10.23 247 3 2
-2.12 11.46 -10.23 241 8 6
-2.13 11.46 -10.23 244 6 5
-2.15 11.45 -10.23 246 5 4
-2.17 11.46 -10.22 250 2 1
-2.18 11.45 -10.23 251 2 1
-2.21 11.44 -10.23 245 4 4
-2.22 11.44 -10.23 249 3 2
-2.24 11.44 -10.23 250 2 2
-2.26 11.43 -10.22 251 2 1
-2.27 11.43 -10.22 250 2 1
-2.29 11.42 -10.22 251 2 2
-2.3 11.42 -10.22 250 2 1
-2.31 11.42 -10.22 250 2 1
-2.33 11.42 -10.22 250 2 1
-2.34 11.41 -10.22 242 6 5
-2.36 11.41 -10.22 207 47 44
-2.37 11.41 -10.22 205 50 49
-2.39 11.4 -10.22 206 45 44
-2.17 11.47 -10.22 236 16 15
-2.2 11.46 -10.22 205 40 39
-2.21 11.46 -10.22 215 35 34
-2.23 11.45 -10.22 214 40 39
-2.32 11.43 -10.22 238 18 16
-2.33 11.43 -10.22 241 12 12
-2.39 11.42 -10.22 213 44 44
-2.4 11.41 -10.22 227 33 32
-2.42 11.41 -10.22 211 46 45
-2.44 11.41 -10.22 212 46 46
-2.46 11.4 -10.22 208 42 42
-2.48 11.4 -10.22 209 44 43
-2.49 11.39 -10.22 221 29 29
-2.51 11.39 -10.21 232 17 16
-2.52 11.39 -10.21 231 16 15
-2.54 11.38 -10.21 232 16 16
-2.56 11.38 -10.2 228 25 23
-2.57 11.37 -10.2 214 41 41
-2.59 11.37 -10.2 208 43 41
-2.61 11.37 -10.19 230 22 20
-2.62 11.36 -10.19 217 30 30
-2.38 11.44 -10.22 219 39 38
-2.39 11.43 -10.22 240 10 9
-2.41 11.43 -10.22 244 7 5
-2.42 11.43 -10.22 238 16 15
-2.43 11.42 -10.22 220 39 38
-2.45 11.42 -10.22 215 45 44
-2.46 11.42 -10.22 210 46 45
-2.48 11.41 -10.22 206 47 46
-2.5 11.41 -10.22 210 48 47
-2.52 11.4 -10.21 230 23 22
-2.54 11.4 -10.21 217 40 37
-2.56 11.39 -10.21 230 21 21
-2.58 11.39 -10.2 225 26 25
-2.59 11.38 -10.2 221 36 35
-2.61 11.38 -10.19 213 45 45
-2.63 11.37 -10.19 213 49 47
-2.64 11.37 -10.19 212 47 47
-2.66 11.37 -10.19 211 47 46
-2.67 11.37 -10.19 219 36 34
-2.68 11.36 -10.19 206 47 45
-2.7 11.36 -10.19 209 50 47
-2.39 11.45 -10.22 214 26 22
-2.4 11.45 -10.22 234 13 11
-2.41 11.44 -10.22 239 9 9
-2.43 11.44 -10.22 219 31 30
-2.45 11.44 -10.22 217 25 22
-2.66 11.38 -10.19 219 36 36
-2.67 11.38 -10.19 217 35 35
-2.69 11.38 -10.2 215 43 41
-3.99 11.08 -10.16 211 47 47
-4.01 11.07 -10.16 209 46 46
-3.92 11.11 -10.17 208 43 42
-3.94 11.1 -10.16 210 41 42
-3.95 11.1 -10.16 210 43 44
-3.97 11.1 -10.16 210 45 45
-4.07 11.08 -10.16 209 41 39
-4.09 11.07 -10.16 208 42 40
-4.1 11.07 -10.16 209 42 40
-4.12 11.06 -10.16 209 42 40
-4.13 11.06 -10.16 220 34 32
-4.15 11.06 -10.15 210 44 42
-4.16 11.05 -10.15 220 30 30
-4.18 11.05 -10.15 210 41 41
-4.19 11.04 -10.15 211 42 42
-4.22 11.04 -10.15 206 45 44
-4.25 11.03 -10.15 205 45 44
-4.26 11.03 -10.15 205 44 43
-4.28 11.03 -10.15 209 39 38
-4.29 11.02 -10.15 211 37 37
-4.31 11.02 -10.14 218 30 28
-4.32 11.01 -10.14 222 25 23
-4.34 11.01 -10.14 219 28 27
-4.35 11.01 -10.14 211 40 36
-4.37 11 -10.14 206 44 40
-4.39 11 -10.14 221 27 25
-4.1 11.08 -10.16 206 45 43
-4.18 11.06 -10.15 207 42 42
-4.19 11.06 -10.15 208 43 42
-4.21 11.06 -10.15 209 43 42
-4.22 11.05 -10.15 207 42 42
-4.24 11.05 -10.15 229 23 21
-4.25 11.05 -10.15 243 6 6
-4.27 11.04 -10.15 241 7 5
-4.28 11.04 -10.15 242 6 4
-4.3 11.04 -10.15 244 5 4
-4.31 11.03 -10.15 244 5 3
-4.33 11.03 -10.15 247 4 1
-4.34 11.03 -10.15 248 3 1
-4.36 11.02 -10.14 246 4 1
-4.37 11.02 -10.14 241 7 3
-4.4 11.01 -10.14 250 2 1
-4.42 11 -10.13 247 4 2
-4.44 11 -10.13 228 25 23
-4.45 11 -10.13 236 18 17
-4.46 11 -10.13 243 7 6
-4.39 11.03 -10.14 207 39 36
-4.41 11.02 -10.14 213 38 35
-4.44 11.02 -10.13 221 34 33
-4.45 11.01 -10.13 221 35 33
-4.47 11.01 -10.13 223 33 31
-4.48 11.01 -10.13 223 32 31
-4.51 11 -10.13 233 18 16
-4.44 11.03 -10.14 245 4 3
-4.49 11.08 -10.14 213 24 19
-1.77 11.89 -10.26 208 43 40
-5.08 11.56 -10.14 213 29 21
-5.09 11.56 -10.14 234 14 12
-5.11 11.55 -10.14 228 22 17
-5.13 11.55 -10.14 218 28 22
-5.14 11.54 -10.14 215 30 24
-5.16 11.54 -10.14 206 37 30
-5.06 11.58 -10.15 225 24 18
-5.08 11.58 -10.15 234 13 9
-5.09 11.57 -10.14 240 8 5
-5.11 11.57 -10.14 242 7 4
-5.13 11.56 -10.14 228 21 17
-5.14 11.56 -10.14 243 6 5
-5.16 11.56 -10.14 240 8 6
-5.17 11.55 -10.14 243 7 5
-5.19 11.55 -10.14 245 4 3
-5.2 11.54 -10.14 236 13 10
-5.22 11.54 -10.14 223 24 21
-5.25 11.53 -10.14 213 30 23
-5.38 11.5 -10.13 216 28 22
-5.51 11.47 -10.12 205 38 31
-5.53 11.47 -10.12 206 40 34
-5.52 11.49 -10.13 219 28 23
-5.53 11.49 -10.12 210 38 32
-6.38 11.29 -10.08 218 26 21
-6.4 11.29 -10.07 219 27 24
-6.6 11.25 -10.08 206 34 26
-6.62 11.25 -10.08 205 35 26
-6.63 11.24 -10.08 208 31 21
-6.65 11.24 -10.08 209 31 23
-6.37 11.31 -10.08 241 7 4
-6.39 11.31 -10.07 251 2 1
-6.4 11.3 -10.08 233 16 12
-6.42 11.3 -10.08 229 15 13
-6.53 11.28 -10.08 205 39 32
-6.55 11.27 -10.08 206 40 34
-6.56 11.27 -10.08 205 40 32
-6.58 11.27 -10.08 209 39 32
-6.59 11.26 -10.08 218 32 26
-6.61 11.26 -10.08 226 23 19
-6.64 11.26 -10.08 206 42 35
-6.65 11.25 -10.08 206 42 34
-6.67 11.25 -10.08 217 32 28
-6.68 11.25 -10.08 233 16 13
-6.7 11.24 -10.08 236 13 10
-6.71 11.24 -10.08 241 11 9
-6.73 11.24 -10.07 242 6 4
-6.74 11.23 -10.07 246 4 2
-6.76 11.23 -10.07 239 8 4
-6.77 11.22 -10.07 207 29 23
-6.39 11.32 -10.07 231 13 10
-6.4 11.32 -10.07 252 1 1
-6.42 11.31 -10.08 252 1 2
-6.43 11.31 -10.08 234 12 9
-6.45 11.31 -10.08 214 28 22
-6.5 11.3 -10.09 208 33 24
-6.51 11.3 -10.09 205 36 27
-6.52 11.29 -10.08 251 2 1
-6.53 11.29 -10.08 206 35 27
-6.47 11.32 -10.09 207 38 30
-6.45 11.51 -10.09 234 16 13
-6.45 11.53 -10.09 237 9 5
-6.44 11.55 -10.09 208 36 31
-6.46 11.54 -10.09 248 3 1
-6.45 11.56 -10.09 245 4 3
-6.46 11.56 -10.09 248 4 2
-6.46 11.57 -10.09 242 8 5
-6.47 11.58 -10.09 237 12 10
-6.47 11.6 -10.09 238 13 10
-6.46 11.62 -10.1 210 30 22
-6.47 11.62 -10.1 243 7 6
-6.48 11.63 -10.09 243 5 3
-6.47 11.65 -10.1 218 26 20
-6.48 11.65 -10.1 249 2 2
-6.47 11.67 -10.1 221 24 17
-6.48 11.66 -10.1 249 3 1
-6.47 11.68 -10.1 236 13 10
-6.48 11.7 -10.1 237 7 5
-6.49 11.69 -10.1 243 5 2
-6.48 11.71 -10.1 244 5 2
-6.49 11.71 -10.1 241 6 4
-9.49 11 -9.97 230 21 19
-9.51 11 -9.97 226 17 13
-6.48 11.73 -10.11 243 6 3
-6.5 11.73 -10.1 249 3 1
-9.49 11.02 -9.97 225 25 23
-9.51 11.01 -9.97 233 12 10
-9.5 11.03 -9.97 223 26 24
-9.51 11.03 -9.97 233 11 7
-6.49 11.76 -10.11 243 6 5
-6.5 11.75 -10.1 253 0 1
-9.5 11.04 -9.97 226 24 22
-9.52 11.04 -9.97 233 11 8
-6.49 11.77 -10.11 242 7 6
-6.51 11.77 -10.1 254 0 1
-9.51 11.06 -9.97 236 12 11
-9.52 11.06 -9.97 228 15 13
-6.49 11.79 -10.11 242 7 5
-6.51 11.79 -10.1 252 1 1
-9.52 11.07 -9.97 224 18 16
-6.5 11.8 -10.1 242 7 6
-6.51 11.8 -10.11 252 1 0
-9.51 11.09 -9.98 226 25 23
-9.53 11.09 -9.98 223 18 15
-6.5 11.82 -10.1 242 7 6
-6.52 11.82 -10.11 253 1 1
-9.52 11.11 -9.98 226 24 23
-9.53 11.1 -9.98 218 18 16
-6.51 11.83 -10.1 242 6 6
-6.52 11.83 -10.11 254 0 1
-9.52 11.12 -9.98 216 32 29
-6.51 11.85 -10.11 236 11 10
-6.52 11.84 -10.1 253 1 0
-6.54 11.84 -10.11 207 24 21
-9.52 11.14 -9.99 208 40 36
-6.51 11.86 -10.11 228 19 16
-6.53 11.86 -10.1 246 4 2
-9.53 11.15 -9.99 206 42 38
-6.52 11.88 -10.11 226 21 17
-6.53 11.87 -10.11 245 4 2
-9.54 11.17 -9.99 246 4 3
-2 12.98 -10.33 226 15 13
-6.52 11.89 -10.11 225 22 17
-6.53 11.89 -10.11 245 4 3
-9.54 11.18 -9.99 244 5 3
-9.55 11.2 -10 244 5 2
-6.52 11.92 -10.11 226 21 16
-6.54 11.92 -10.11 245 4 2
-9.55 11.21 -10 244 4 2
-1.98 13.03 -10.33 233 8 6
-6.53 11.94 -10.11 226 21 19
-6.54 11.93 -10.11 246 4 2
-9.55 11.23 -10 246 4 3
-6.54 11.95 -10.11 246 3 3
-9.54 11.25 -10 211 34 32
-9.56 11.24 -10 246 4 3
-6.53 11.97 -10.11 239 9 9
-9.55 11.26 -10 218 29 23
-9.56 11.26 -10 247 3 3
-6.54 11.98 -10.11 228 21 17
-6.55 11.98 -10.11 246 4 2
-9.55 11.28 -10 229 17 14
-9.56 11.27 -10 247 4 2
-6.54 12 -10.11 224 22 18
-6.55 11.99 -10.11 245 4 3
-9.55 11.29 -10.01 226 22 19
-9.57 11.29 -10.01 227 17 15
-6.54 12.01 -10.11 234 15 13
-6.56 12.01 -10.11 243 5 3
-9.56 11.31 -10.01 210 36 33
-9.57 11.31 -10.01 237 8 5
-6.55 12.03 -10.11 237 12 11
-6.56 12.03 -10.12 243 6 4
-9.58 11.32 -10.01 215 20 13
-6.55 12.04 -10.11 242 7 6
-6.56 12.04 -10.11 240 8 6
-9.58 11.33 -10.01 207 23 18
-6.55 12.06 -10.11 243 5 2
-6.57 12.05 -10.11 236 9 7
-6.56 12.07 -10.11 243 7 5
-6.57 12.07 -10.11 239 8 5
-6.56 12.08 -10.11 243 6 3
-6.57 12.08 -10.11 243 5 2
-6.55 12.1 -10.11 206 40 34
-6.56 12.1 -10.11 247 4 1
-6.58 12.1 -10.11 241 7 5
-6.55 12.12 -10.11 233 15 12
-6.57 12.11 -10.11 251 2 0
-6.58 12.11 -10.11 232 12 11
-6.55 12.13 -10.12 248 3 1
-6.57 12.13 -10.11 252 1 1
-6.58 12.13 -10.11 206 28 20
-6.56 12.15 -10.12 251 2 0
-6.57 12.14 -10.11 245 4 2
-6.55 12.17 -10.12 234 11 6
-6.57 12.16 -10.12 250 2 2
-6.58 12.16 -10.12 241 6 2
-6.57 12.18 -10.12 250 2 2
-6.59 12.18 -10.12 233 14 10
-6.45 11.51 -10.09 249 3 2
-6.46 11.33 -10.09 249 3 1
-6.83 11.21 -10.07 248 3 1
-6.63 11.27 -10.08 218 29 24
-6.52 11.3 -10.08 237 12 7
-6.45 11.32 -10.08 253 1 0
-6.43 11.32 -10.07 253 0 0
-6.42 11.32 -10.07 254 0 1
-6.41 11.32 -10.07 250 2 1
-6.84 11.2 -10.07 226 21 15
-6.82 11.2 -10.07 225 16 13
-6.5 11.29 -10.09 251 2 1
-6.41 11.3 -10.08 251 2 1
-6.64 11.24 -10.08 252 1 0
-6.49 11.28 -10.08 249 3 2
-6.39 11.28 -10.09 242 7 5
-5.61 11.47 -10.12 219 27 21
-5.6 11.46 -10.12 232 19 14
-5.55 11.47 -10.12 247 4 3
-5.49 11.49 -10.12 253 0 0
-5.39 11.51 -10.13 247 4 3
-5.36 11.52 -10.13 235 16 13
-5.37 11.5 -10.13 251 2 1
-5.33 11.51 -10.13 229 19 12
-5.3 11.52 -10.13 250 2 1
-5.23 11.54 -10.13 253 1 0
-5.12 11.57 -10.14 242 7 6
-5.27 11.51 -10.13 221 25 19
-5.24 11.52 -10.13 227 21 16
-5.2 11.53 -10.14 239 12 10
-5.11 11.55 -10.14 251 1 1
-5.08 11.55 -10.14 216 32 24
-4.68 11.03 -10.14 207 44 45
-4.47 11.09 -10.15 233 11 11
-4.5 11.06 -10.14 211 37 37
-4.14 11.13 -10.16 206 41 40
-4.42 11.03 -10.14 218 23 22
-0.91 11.96 -10.28 237 8 5
-4.42 11.01 -10.13 209 45 42
-4.39 11.02 -10.14 230 18 18
-4.43 11 -10.13 241 6 4
-4.4 11 -10.13 253 1 1
-4.39 11.01 -10.14 248 3 1
-4.16 11.07 -10.15 237 19 18
-3.98 11.09 -10.16 250 2 1
-2.7 11.38 -10.2 222 31 30
-2.68 11.37 -10.2 253 1 1
-2.68 11.35 -10.19 249 2 2
-2.43 11.43 -10.22 233 11 9
-2.42 11.43 -10.22 219 29 28
-2.33 11.45 -10.22 222 30 28
-2.3 11.44 -10.22 233 22 20
-2.16 11.48 -10.22 227 17 17
-2.26 11.43 -10.22 233 17 14
-2.25 11.44 -10.22 215 30 30
-2.21 11.45 -10.22 252 2 0
-2.2 11.45 -10.22 252 2 0
-2.18 11.45 -10.22 215 32 32
-2.14 11.47 -10.23 246 5 4
-1.95 11.52 -10.24 207 49 49
-2.24 11.43 -10.22 246 4 2
-2.19 11.44 -10.23 239 8 6
-2.18 11.44 -10.23 240 6 4
-2.16 11.45 -10.23 240 7 4
-1.8 11.55 -10.24 214 31 30
-1.29 11.67 -10.26 226 18 18
-2.12 11.44 -10.23 211 29 28
-2.1 11.45 -10.23 225 20 21
-1.31 11.65 -10.25 253 0 1
-1.28 11.66 -10.25 252 1 1
-1.47 11.6 -10.26 253 1 0
-1.32 11.64 -10.25 213 44 43
-1.26 11.65 -10.25 252 1 1
-1.51 11.57 -10.25 234 10 7
-1.46 11.59 -10.26 251 2 1
-1.27 11.64 -10.26 244 4 5
-1.52 11.56 -10.26 237 8 6
-1.44 11.58 -10.26 208 38 35
-1.33 11.6 -10.25 249 3 1
-1.21 11.64 -10.26 252 1 1
-1.19 11.64 -10.26 251 2 1
-2.48 11.01 -10.16 242 7 5
-2.47 11.01 -10.17 244 5 3
-2.45 11 -10.16 252 2 0
-6.44 11.49 -10.08 240 8 6
-6.46 11.49 -10.09 225 16 13
-6.5 11.74 -10.11 246 4 1
-6.68 15.8 -10.31 215 42 40
-6.69 15.79 -10.31 213 42 40
-6.71 15.79 -10.31 214 40 39
-6.72 15.79 -10.31 213 39 38
-6.71 15.8 -10.31 230 22 21
-6.73 15.8 -10.31 228 23 23
-6.74 15.8 -10.31 234 19 18
-6.76 15.79 -10.3 233 19 18
-6.73 15.82 -10.31 207 45 45
-4.73 16.94 -10.44 247 4 1
-9.89 12.98 -10.07 208 15 12
-9.9 13.04 -10.07 217 12 9
-9.9 13.05 -10.06 225 13 8
-9.91 13.08 -10.06 234 9 5
-9.91 13.11 -10.06 250 1 1
-9.91 13.13 -10.05 250 2 0
-9.94 13.19 -10.06 213 12 8
-9.95 13.21 -10.06 230 7 6
-9.95 13.22 -10.06 240 6 5
-9.93 13.3 -10.06 243 5 5
-9.94 13.31 -10.06 248 4 2
-9.94 13.33 -10.06 247 4 1
-9.95 13.34 -10.07 249 3 1
-9.96 13.37 -10.07 247 4 3
-7.78 15.61 -10.27 242 6 5
-3.26 16.49 -10.46 236 9 6
-3.65 16.43 -10.44 253 1 0
-4.54 16.96 -10.44 251 1 1
-4.56 16.96 -10.44 252 1 0
-4.57 16.96 -10.44 252 1 0
-4.59 16.95 -10.44 253 0 0
-4.6 16.95 -10.44 253 0 0
-3.17 17.24 -10.5 247 4 2
-4.53 16.98 -10.44 250 2 1
-3.18 17.25 -10.5 253 1 1
-3.18 17.27 -10.5 251 2 1
-3.18 17.28 -10.5 232 9 7
-2.14 12.15 -10.27 207 18 16
-2.15 12.15 -10.27 229 9 7
-2.17 12.15 -10.27 241 7 4
-2.18 12.14 -10.27 247 3 2
-2.2 12.14 -10.27 247 3 3
-2.21 12.14 -10.27 249 3 3
-2.23 12.14 -10.27 241 6 4
-2.24 12.13 -10.27 236 8 5
-2.26 12.13 -10.27 235 8 4
-2.27 12.13 -10.27 243 5 4
-2.29 12.12 -10.27 242 6 4
-2.3 12.12 -10.27 232 9 7
-2.32 12.12 -10.27 219 12 9
-2.34 12.12 -10.26 235 7 5
-2.35 12.11 -10.26 236 7 5
-2.37 12.11 -10.27 242 5 4
-2.38 12.11 -10.26 235 8 6
-2.4 12.1 -10.26 232 9 8
-2.41 12.1 -10.26 242 6 4
-2.43 12.1 -10.26 245 4 3
-2.44 12.1 -10.26 235 9 7
-2.16 12.16 -10.27 227 10 6
-2.17 12.16 -10.27 245 5 3
-2.19 12.16 -10.27 246 4 3
-2.2 12.16 -10.27 245 5 3
-2.22 12.15 -10.27 246 4 3
-2.23 12.15 -10.27 247 4 3
-2.25 12.15 -10.27 245 4 4
-2.26 12.14 -10.27 230 10 6
-2.28 12.14 -10.27 225 12 7
-2.29 12.14 -10.27 225 11 7
-2.31 12.14 -10.27 233 7 6
-2.32 12.13 -10.27 229 8 7
-2.35 12.13 -10.27 214 13 9
-2.37 12.12 -10.27 221 12 8
-1.86 12.24 -10.28 244 5 4
-1.87 12.24 -10.28 211 14 12
-6.44 11.53 -10.13 221 12 10
-6.46 11.53 -10.13 222 12 11
-6.44 11.55 -10.13 252 1 2
-6.46 11.55 -10.13 234 8 5
-6.43 11.57 -10.13 218 13 10
-6.45 11.56 -10.13 251 2 1
-6.46 11.56 -10.12 247 4 2
-6.45 11.58 -10.12 250 2 1
-6.46 11.58 -10.12 251 2 1
-6.45 11.6 -10.12 248 3 2
-6.46 11.59 -10.12 251 2 1
-6.48 11.59 -10.12 222 12 8
-6.45 11.61 -10.12 248 3 2
-6.47 11.61 -10.12 253 0 0
-6.48 11.61 -10.12 224 11 9
-6.46 11.63 -10.12 249 2 2
-6.47 11.62 -10.12 253 1 0
-6.46 11.64 -10.12 249 3 1
-6.47 11.64 -10.12 247 3 2
-6.46 11.66 -10.11 251 1 1
-6.47 11.66 -10.11 244 5 2
-6.45 11.68 -10.11 214 15 12
-6.46 11.68 -10.11 253 1 1
-6.47 11.67 -10.11 244 5 2
-6.45 11.7 -10.11 208 18 15
-6.46 11.69 -10.11 253 1 0
-6.48 11.69 -10.11 235 7 5
-6.47 11.71 -10.11 253 0 1
-6.48 11.71 -10.11 227 9 7
-6.47 11.72 -10.11 252 1 0
-6.48 11.72 -10.11 213 15 11
-6.47 11.74 -10.11 251 1 1
-6.48 11.75 -10.11 238 6 4
-6.48 11.77 -10.11 211 16 10
-6.54 12.04 -10.13 214 16 12
-6.55 12.05 -10.13 244 5 3
-6.55 12.07 -10.13 246 4 1
-6.56 12.08 -10.14 246 4 3
-6.56 12.1 -10.13 218 14 10
-5.13 11.56 -10.14 252 1 0
-1.69 11.15 -10.21 206 16 12
-1.71 11.14 -10.21 227 9 7
-1.69 11.16 -10.21 209 14 12
-1.71 11.16 -10.21 206 17 14
-1.61 11.48 -10.25 208 17 13
-4.35 11 -10.15 205 21 19
-4.37 11 -10.15 216 16 15
-4.38 11 -10.14 225 13 10
-4.07 11.07 -10.16 215 18 16
-4.09 11.06 -10.15 235 9 6
-4.1 11.06 -10.15 247 3 2
-4.12 11.06 -10.15 250 2 1
-4.13 11.05 -10.15 239 8 5
-4.15 11.05 -10.15 236 9 7
-4.16 11.05 -10.15 250 2 1
-4.18 11.05 -10.15 248 3 1
-4.19 11.05 -10.15 249 2 2
-4.21 11.05 -10.15 249 2 2
-4.22 11.04 -10.15 250 2 2
-4.24 11.04 -10.15 249 2 2
-4.25 11.04 -10.15 249 2 2
-4.27 11.03 -10.15 249 2 1
-4.28 11.03 -10.15 250 2 1
-4.3 11.02 -10.15 207 17 16
-4.31 11.02 -10.15 206 18 16
-4.33 11.02 -10.15 249 3 1
-4.34 11.02 -10.15 249 3 1
-4.36 11.02 -10.15 249 3 1
-4.37 11.01 -10.15 250 2 1
-4.39 11.01 -10.14 251 2 1
-4.4 11.01 -10.14 252 1 1
-4.42 11.01 -10.14 252 1 1
-4.43 11 -10.14 252 1 1
-4.45 11 -10.14 251 2 1
-4.46 11 -10.14 230 11 10
-3.91 11.1 -10.17 207 20 17
-3.93 11.1 -10.17 230 12 10
-3.94 11.1 -10.17 239 7 6
-3.96 11.1 -10.16 244 5 3
-3.97 11.09 -10.16 249 2 2
-3.99 11.09 -10.16 250 2 1
-4 11.09 -10.16 251 2 0
-4.02 11.09 -10.16 252 1 0
-4.03 11.08 -10.16 251 2 1
-4.05 11.08 -10.16 250 2 1
-4.06 11.08 -10.16 249 3 1
-4.08 11.08 -10.16 253 1 0
-4.09 11.08 -10.16 252 1 1
-4.11 11.07 -10.15 252 1 1
-4.12 11.08 -10.15 253 1 1
-4.14 11.07 -10.15 252 1 1
-4.15 11.07 -10.15 252 1 0
-4.17 11.07 -10.15 232 12 9
-4.18 11.07 -10.15 238 8 7
-4.2 11.06 -10.15 244 5 4
-4.21 11.06 -10.15 246 4 3
-4.23 11.06 -10.15 243 6 4
-4.24 11.06 -10.15 232 12 10
-4.25 11.05 -10.15 224 17 16
-4.27 11.05 -10.14 222 16 15
-4.28 11.05 -10.14 222 16 14
-4.3 11.04 -10.15 223 16 14
-4.32 11.04 -10.15 224 15 13
-4.33 11.04 -10.15 223 16 13
-4.34 11.03 -10.15 250 2 1
-4.36 11.03 -10.15 228 13 11
-4.37 11.03 -10.15 234 10 7
-4.39 11.03 -10.14 234 11 7
-4.4 11.02 -10.14 244 5 4
-4.42 11.02 -10.14 251 2 1
-4.43 11.02 -10.14 252 1 1
-4.45 11.02 -10.14 245 4 3
-4.54 11 -10.14 214 17 16
-4.55 11 -10.14 236 8 7
-2.1 11.45 -10.23 220 12 11
-2.11 11.45 -10.24 221 14 12
-2.13 11.45 -10.24 212 17 16
-2.14 11.44 -10.23 210 18 16
-2.16 11.44 -10.23 217 16 16
-2.17 11.45 -10.23 217 16 15
-2.19 11.44 -10.23 217 15 15
-2.2 11.43 -10.23 215 15 15
-2.22 11.43 -10.23 215 15 15
-2.23 11.43 -10.23 215 15 14
-2.25 11.42 -10.23 223 12 11
-2.26 11.42 -10.23 226 11 10
-2.28 11.42 -10.23 223 13 12
-2.29 11.41 -10.23 224 13 12
-2.31 11.41 -10.23 223 14 12
-2.32 11.41 -10.23 230 10 9
-2.34 11.41 -10.23 211 18 16
-2.49 11.38 -10.22 212 17 16
-2.5 11.38 -10.22 212 17 15
-2.52 11.38 -10.22 212 17 16
-2.53 11.37 -10.22 213 16 15
-2.55 11.37 -10.22 213 17 14
-2.56 11.37 -10.22 209 19 18
-3.92 11.12 -10.17 224 13 13
-3.93 11.12 -10.17 240 6 6
-3.95 11.11 -10.17 240 7 6
-3.96 11.11 -10.17 239 7 5
-3.98 11.11 -10.17 240 7 5
-3.99 11.11 -10.16 242 6 4
-4 11.1 -10.16 251 1 1
-4.02 11.1 -10.16 252 1 1
-4.03 11.1 -10.16 252 1 1
-4.05 11.1 -10.16 251 1 1
-4.06 11.1 -10.16 251 1 1
-4.08 11.09 -10.16 251 1 2
-4.09 11.09 -10.15 251 1 1
-4.11 11.09 -10.15 242 6 4
-4.12 11.09 -10.15 229 12 10
-4.42 11.04 -10.14 228 11 10
-4.44 11.03 -10.14 245 4 3
-4.45 11.03 -10.14 206 22 19
-2.08 11.47 -10.24 238 6 4
-2.1 11.47 -10.23 252 1 1
-2.11 11.46 -10.23 253 1 0
-2.13 11.46 -10.23 252 1 1
-2.14 11.46 -10.23 252 1 1
-2.16 11.46 -10.23 253 0 0
-2.18 11.46 -10.23 254 0 0
-2.19 11.46 -10.23 253 0 0
-2.2 11.45 -10.23 254 0 1
-2.22 11.44 -10.23 253 1 1
-2.23 11.44 -10.23 253 1 1
-2.25 11.44 -10.23 253 1 0
-2.26 11.44 -10.23 253 0 0
-2.28 11.43 -10.23 253 0 0
-2.3 11.43 -10.23 253 1 0
-2.31 11.43 -10.23 253 1 0
-2.33 11.42 -10.23 253 1 0
-2.34 11.42 -10.23 253 1 0
-2.36 11.42 -10.23 249 2 2
-2.37 11.41 -10.23 242 5 4
-2.39 11.41 -10.23 238 6 5
-2.4 11.41 -10.23 246 3 3
-2.42 11.41 -10.22 249 3 1
-2.43 11.41 -10.22 252 1 1
-2.45 11.41 -10.22 252 1 1
-2.46 11.41 -10.22 250 2 2
-2.48 11.4 -10.22 250 2 1
